# .PCD v0.7 - Point Cloud Data file format
VERSION 0.7
FIELDS x y z
SIZE 4 4 4
TYPE F F F
COUNT 1 1 1
WIDTH 204
HEIGHT 1
VIEWPOINT 0 0 0 1 0 0 0
POINTS 204
DATA ascii
0.5 0 -1
0.5 0 -0.80000001
0.49240386 0.17364818 -0.80000001
0.46984631 0.34202012 -0.80000001
0.43301269 0.5 -0.80000001
0.5 0 -0.60000002
0.49240386 0.17364818 -0.60000002
0.46984631 0.34202012 -0.60000002
0.43301269 0.5 -0.60000002
0.38302222 0.64278758 -0.60000002
0.32139382 0.76604444 -0.60000002
0.24999999 0.86602545 -0.60000002
0.17101008 0.93969262 -0.60000002
0.5 0 -0.40000004
0.49240386 0.17364818 -0.40000004
0.46984631 0.34202012 -0.40000004
0.43301269 0.5 -0.40000004
0.38302222 0.64278758 -0.40000004
0.32139382 0.76604444 -0.40000004
0.24999999 0.86602545 -0.40000004
0.17101008 0.93969262 -0.40000004
0.086824112 0.98480773 -0.40000004
-2.1855694e-08 1 -0.40000004
-0.086824097 0.98480773 -0.40000004
0.5 0 -0.20000003
0.49240386 0.17364818 -0.20000003
0.46984631 0.34202012 -0.20000003
0.43301269 0.5 -0.20000003
0.38302222 0.64278758 -0.20000003
0.32139382 0.76604444 -0.20000003
0.24999999 0.86602545 -0.20000003
0.17101008 0.93969262 -0.20000003
0.086824112 0.98480773 -0.20000003
-2.1855694e-08 1 -0.20000003
-0.086824097 0.98480773 -0.20000003
-0.17101006 0.93969262 -0.20000003
-0.25000003 0.86602539 -0.20000003
-0.32139382 0.76604444 -0.20000003
-0.38302222 0.64278764 -0.20000003
0.5 0 -3.2782555e-08
0.49240386 0.17364818 -3.2782555e-08
0.46984631 0.34202012 -3.2782555e-08
0.43301269 0.5 -3.2782555e-08
0.38302222 0.64278758 -3.2782555e-08
0.32139382 0.76604444 -3.2782555e-08
0.24999999 0.86602545 -3.2782555e-08
0.17101008 0.93969262 -3.2782555e-08
0.086824112 0.98480773 -3.2782555e-08
-2.1855694e-08 1 -3.2782555e-08
-0.086824097 0.98480773 -3.2782555e-08
-0.17101006 0.93969262 -3.2782555e-08
-0.25000003 0.86602539 -3.2782555e-08
-0.32139382 0.76604444 -3.2782555e-08
-0.38302222 0.64278764 -3.2782555e-08
-0.43301269 0.50000006 -3.2782555e-08
-0.46984631 0.34202021 -3.2782555e-08
-0.49240386 0.1736483 -3.2782555e-08
0.5 0 0.19999997
0.49240386 0.17364818 0.19999997
0.46984631 0.34202012 0.19999997
0.43301269 0.5 0.19999997
0.38302222 0.64278758 0.19999997
0.32139382 0.76604444 0.19999997
0.24999999 0.86602545 0.19999997
0.17101008 0.93969262 0.19999997
0.086824112 0.98480773 0.19999997
-2.1855694e-08 1 0.19999997
-0.086824097 0.98480773 0.19999997
-0.17101006 0.93969262 0.19999997
-0.25000003 0.86602539 0.19999997
-0.32139382 0.76604444 0.19999997
-0.38302222 0.64278764 0.19999997
-0.43301269 0.50000006 0.19999997
-0.46984631 0.34202021 0.19999997
-0.49240386 0.1736483 0.19999997
-0.5 -8.7422777e-08 0.19999997
-0.49240386 -0.17364822 0.19999997
-0.46984631 -0.34202015 0.19999997
-0.43301269 -0.49999997 0.19999997
0.5 0 0.39999998
0.49240386 0.17364818 0.39999998
0.46984631 0.34202012 0.39999998
0.43301269 0.5 0.39999998
0.38302222 0.64278758 0.39999998
0.32139382 0.76604444 0.39999998
0.24999999 0.86602545 0.39999998
0.17101008 0.93969262 0.39999998
0.086824112 0.98480773 0.39999998
-2.1855694e-08 1 0.39999998
-0.086824097 0.98480773 0.39999998
-0.17101006 0.93969262 0.39999998
-0.25000003 0.86602539 0.39999998
-0.32139382 0.76604444 0.39999998
-0.38302222 0.64278764 0.39999998
-0.43301269 0.50000006 0.39999998
-0.46984631 0.34202021 0.39999998
-0.49240386 0.1736483 0.39999998
-0.5 -8.7422777e-08 0.39999998
-0.49240386 -0.17364822 0.39999998
-0.46984631 -0.34202015 0.39999998
-0.43301269 -0.49999997 0.39999998
-0.38302225 -0.64278758 0.39999998
-0.32139376 -0.76604456 0.39999998
-0.24999996 -0.86602545 0.39999998
-0.17101003 -0.93969268 0.39999998
0.5 0 0.59999996
0.49240386 0.17364818 0.59999996
0.46984631 0.34202012 0.59999996
0.43301269 0.5 0.59999996
0.38302222 0.64278758 0.59999996
0.32139382 0.76604444 0.59999996
0.24999999 0.86602545 0.59999996
0.17101008 0.93969262 0.59999996
0.086824112 0.98480773 0.59999996
-2.1855694e-08 1 0.59999996
-0.086824097 0.98480773 0.59999996
-0.17101006 0.93969262 0.59999996
-0.25000003 0.86602539 0.59999996
-0.32139382 0.76604444 0.59999996
-0.38302222 0.64278764 0.59999996
-0.43301269 0.50000006 0.59999996
-0.46984631 0.34202021 0.59999996
-0.49240386 0.1736483 0.59999996
-0.5 -8.7422777e-08 0.59999996
-0.49240386 -0.17364822 0.59999996
-0.46984631 -0.34202015 0.59999996
-0.43301269 -0.49999997 0.59999996
-0.38302225 -0.64278758 0.59999996
-0.32139376 -0.76604456 0.59999996
-0.24999996 -0.86602545 0.59999996
-0.17101003 -0.93969268 0.59999996
-0.086824067 -0.98480779 0.59999996
5.9624403e-09 -1 0.59999996
0.086824074 -0.98480773 0.59999996
0.5 0 0.79999995
0.49240386 0.17364818 0.79999995
0.46984631 0.34202012 0.79999995
0.43301269 0.5 0.79999995
0.38302222 0.64278758 0.79999995
0.32139382 0.76604444 0.79999995
0.24999999 0.86602545 0.79999995
0.17101008 0.93969262 0.79999995
0.086824112 0.98480773 0.79999995
-2.1855694e-08 1 0.79999995
-0.086824097 0.98480773 0.79999995
-0.17101006 0.93969262 0.79999995
-0.25000003 0.86602539 0.79999995
-0.32139382 0.76604444 0.79999995
-0.38302222 0.64278764 0.79999995
-0.43301269 0.50000006 0.79999995
-0.46984631 0.34202021 0.79999995
-0.49240386 0.1736483 0.79999995
-0.5 -8.7422777e-08 0.79999995
-0.49240386 -0.17364822 0.79999995
-0.46984631 -0.34202015 0.79999995
-0.43301269 -0.49999997 0.79999995
-0.38302225 -0.64278758 0.79999995
-0.32139376 -0.76604456 0.79999995
-0.24999996 -0.86602545 0.79999995
-0.17101003 -0.93969268 0.79999995
-0.086824067 -0.98480779 0.79999995
5.9624403e-09 -1 0.79999995
0.086824074 -0.98480773 0.79999995
0.17101005 -0.93969262 0.79999995
0.24999996 -0.86602545 0.79999995
0.32139376 -0.7660445 0.79999995
0.38302216 -0.64278775 0.79999995
0.5 0 0.99999994
0.49240386 0.17364818 0.99999994
0.46984631 0.34202012 0.99999994
0.43301269 0.5 0.99999994
0.38302222 0.64278758 0.99999994
0.32139382 0.76604444 0.99999994
0.24999999 0.86602545 0.99999994
0.17101008 0.93969262 0.99999994
0.086824112 0.98480773 0.99999994
-2.1855694e-08 1 0.99999994
-0.086824097 0.98480773 0.99999994
-0.17101006 0.93969262 0.99999994
-0.25000003 0.86602539 0.99999994
-0.32139382 0.76604444 0.99999994
-0.38302222 0.64278764 0.99999994
-0.43301269 0.50000006 0.99999994
-0.46984631 0.34202021 0.99999994
-0.49240386 0.1736483 0.99999994
-0.5 -8.7422777e-08 0.99999994
-0.49240386 -0.17364822 0.99999994
-0.46984631 -0.34202015 0.99999994
-0.43301269 -0.49999997 0.99999994
-0.38302225 -0.64278758 0.99999994
-0.32139376 -0.76604456 0.99999994
-0.24999996 -0.86602545 0.99999994
-0.17101003 -0.93969268 0.99999994
-0.086824067 -0.98480779 0.99999994
5.9624403e-09 -1 0.99999994
0.086824074 -0.98480773 0.99999994
0.17101005 -0.93969262 0.99999994
0.24999996 -0.86602545 0.99999994
0.32139376 -0.7660445 0.99999994
0.38302216 -0.64278775 0.99999994
0.43301266 -0.50000018 0.99999994
0.46984628 -0.34202036 0.99999994
0.49240386 -0.17364845 0.99999994
0.5 1.7484555e-07 0.99999994
