# .PCD v0.7 - Point Cloud Data file format
VERSION 0.7
FIELDS x y z
SIZE 4 4 4
TYPE F F F
COUNT 1 1 1
WIDTH 397
HEIGHT 1
VIEWPOINT 0 0 0 1 0 0 0
POINTS 397
DATA ascii
0.09842784 0.41710106 0.12961699
0.09130083 0.41780809 0.12866098
0.082620688 0.41678345 0.12666349
0.12061663 0.41810253 0.12562284
0.12044685 0.42508137 0.11632576
0.12964609 0.4156599 0.11992896
0.12411057 0.42032439 0.12037779
0.12390291 0.42397267 0.11031234
0.13238537 0.41425118 0.114508
0.11068051 0.42586869 0.12149422
0.10254404 0.42720747 0.12129358
0.111905 0.42000508 0.12663579
0.10225947 0.42090696 0.12671597
0.1137531 0.42768034 0.11665536
0.10395664 0.43083084 0.11444735
0.11762372 0.42420557 0.12139747
0.092808537 0.42728654 0.1197375
0.08381331 0.42629653 0.11735813
0.091688216 0.42259419 0.12501842
0.08169809 0.42118075 0.12246996
0.094277054 0.43088141 0.11311627
0.084271342 0.42913079 0.11071486
0.11353806 0.42990288 0.10937266
0.10450911 0.43242532 0.10643437
0.099245377 0.43252793 0.10402091
0.083820418 0.4300561 0.10340884
0.076314598 0.41525707 0.1246958
0.018084534 0.43754107 0.12210444
0.028495595 0.4464632 0.1131008
0.022239454 0.44807309 0.11392189
0.028692625 0.43889308 0.11502071
0.022168137 0.44075188 0.11898779
0.013179146 0.43749601 0.12128114
0.013992608 0.44674453 0.11192212
0.010969348 0.4406513 0.11603238
0.0064956769 0.43748552 0.1107558
0.026164338 0.4269962 0.12443548
0.019904494 0.43020427 0.12454355
0.026344948 0.42329192 0.12499352
0.020253643 0.42173356 0.1253801
0.031340368 0.42917138 0.11818669
0.024596602 0.43326831 0.12160285
0.0305393 0.42109588 0.11940715
0.021682896 0.41650182 0.12220249
0.012012579 0.43084547 0.1225664
0.014439821 0.42251903 0.12293377
0.0079860389 0.4291735 0.11882043
0.0046073794 0.42880687 0.11366193
0.01064603 0.41967484 0.11923439
0.004569903 0.42047492 0.11445878
0.039964281 0.45401716 0.10341701
0.041558694 0.45436728 0.10040484
0.065763876 0.47081569 0.076217517
0.064283878 0.47079912 0.075969785
0.065683529 0.46823129 0.07680811
0.06837263 0.45622262 0.079914048
0.048148889 0.45427144 0.085704572
0.059822574 0.46548358 0.078504339
0.051975269 0.46321687 0.078336403
0.0591163 0.45603243 0.081793219
0.049479045 0.45822749 0.08225473
0.033574071 0.45491368 0.10515579
0.024393469 0.45485666 0.1038817
0.034582887 0.45641655 0.099311486
0.025154009 0.45656505 0.097660147
0.017811321 0.45412326 0.10117193
0.016171426 0.45453101 0.094469592
0.011361755 0.45263743 0.089649692
0.043105107 0.45527989 0.083626598
0.043073844 0.45679253 0.080394678
0.010704428 0.45226854 0.086563334
0.040155657 0.44780174 0.10480537
0.041248783 0.43738538 0.10736184
0.042999193 0.44836318 0.10063041
0.05114847 0.43331724 0.09927208
0.045742873 0.43820313 0.10168281
0.077172868 0.42465544 0.11440577
0.072964534 0.4191148 0.11865815
0.063352033 0.41797775 0.11443556
0.075381584 0.42583448 0.10756826
0.064775407 0.42484117 0.10424878
0.071096107 0.42293465 0.11128493
0.064447798 0.4222416 0.10949743
0.042408939 0.42903599 0.11132967
0.053759363 0.41783607 0.11268494
0.043290514 0.41899887 0.11210264
0.054737311 0.4261601 0.10292255
0.048619106 0.4289408 0.10555078
0.053899657 0.42209193 0.10782014
0.048713244 0.42193234 0.10704425
0.065867111 0.45027319 0.078640774
0.048893813 0.44747528 0.089197211
0.052102182 0.43355855 0.095729873
0.049827613 0.43892843 0.092675276
0.058031302 0.44850481 0.082231142
0.052486014 0.44620374 0.084709875
0.075108416 0.42726666 0.10072812
0.066668659 0.42672148 0.098817274
0.056948904 0.42851874 0.095516674
0.03387323 0.44905642 0.10887539
0.023418806 0.45238635 0.10867181
0.034791339 0.43892193 0.10988759
0.013189718 0.44998518 0.10443575
0.0084893554 0.4459804 0.10166391
0.00652536 0.44016913 0.10593934
0.011728838 0.45190212 0.096017599
0.0083021522 0.44793907 0.093328923
0.0076171532 0.43799028 0.091943413
0.035938494 0.43171197 0.11389589
0.034793366 0.41751426 0.11373201
0.0035315752 0.42966011 0.10733246
0.0033792257 0.41870263 0.10932391
0.0048324466 0.42788139 0.093945242
0.004197821 0.42128339 0.093638994
0.007518746 0.44531116 0.087276012
0.0081245005 0.43680689 0.088193759
0.0060634911 0.41647074 0.088913962
0.11739444 0.40685853 0.13510191
0.12601379 0.3967028 0.13684854
0.11941653 0.40063268 0.13806166
0.12618692 0.39107361 0.1380247
0.11974387 0.39131045 0.14086418
0.12607127 0.38278729 0.1386365
0.11966698 0.38139209 0.14180389
0.10525357 0.39809069 0.14323883
0.098097757 0.39957538 0.14313351
0.10967556 0.40939763 0.13507293
0.10044192 0.41022462 0.13297242
0.10991462 0.40169293 0.14009735
0.10008653 0.40375388 0.13877757
0.088473581 0.40055981 0.14274468
0.079233989 0.39989763 0.14092031
0.090709977 0.41071182 0.13148016
0.080986649 0.41050044 0.12911305
0.090166405 0.40485108 0.13522239
0.079775989 0.40400371 0.13248172
0.10691191 0.39084065 0.14506744
0.098112583 0.39208263 0.14686175
0.10796233 0.38203231 0.146896
0.098008856 0.38210341 0.14814328
0.11155088 0.39290887 0.14308852
0.11321228 0.38060004 0.14520793
0.088077873 0.3920396 0.14651711
0.078089952 0.39183646 0.14471312
0.08767885 0.38219154 0.14839469
0.078103557 0.38207841 0.14569397
0.125625 0.37168998 0.1388035
0.12004914 0.37119204 0.14073108
0.11871251 0.36218032 0.1409813
0.1159512 0.3516078 0.13926238
0.10627879 0.37244475 0.14675686
0.097980514 0.37214753 0.148579
0.1046606 0.36380959 0.14603458
0.098382719 0.3619836 0.14755784
0.11156514 0.37073547 0.14456046
0.10966446 0.36129323 0.14468324
0.10368241 0.35751969 0.14571637
0.088048071 0.37196589 0.14814761
0.078530997 0.37185499 0.14473395
0.088315733 0.36169583 0.14707217
0.078874782 0.361848 0.14343461
0.075680912 0.3569321 0.14010799
0.097222924 0.35487488 0.14629671
0.11000547 0.3510094 0.14109839
0.10028611 0.34998694 0.14264192
0.10962357 0.34407797 0.14146465
0.099796735 0.34396362 0.14186014
0.089063972 0.35471907 0.14515544
0.078576416 0.35143271 0.14254944
0.077140316 0.34446436 0.14308797
0.089433506 0.34936804 0.14152394
0.07979548 0.35131407 0.14050758
0.089619756 0.34410357 0.14182758
0.082061589 0.34417635 0.14243826
0.13938569 0.39650577 0.12115486
0.12878038 0.4079296 0.12744722
0.12173645 0.41073504 0.130382
0.1298157 0.40010491 0.13151345
0.12459895 0.40320066 0.13391759
0.13208537 0.40941575 0.12278631
0.12751675 0.41400841 0.12429792
0.13592353 0.39995682 0.12436699
0.13949388 0.38915274 0.12366669
0.14957619 0.37474158 0.12319911
0.14055665 0.37925947 0.1241942
0.13130912 0.39034614 0.13340759
0.13104695 0.38037273 0.13454524
0.13681597 0.39028034 0.12713194
0.1368347 0.37987375 0.1284986
0.14101997 0.39799848 0.11390477
0.14280428 0.39793241 0.10748063
0.13635896 0.40799335 0.11443044
0.13912433 0.4020102 0.1151459
0.1424109 0.38928315 0.11538742
0.15140437 0.37493685 0.12099888
0.14523625 0.37591407 0.11914825
0.14411123 0.38757992 0.10956082
0.11247893 0.41326225 0.13107459
0.10406935 0.41417605 0.12990457
0.14041588 0.36069921 0.1339341
0.15111047 0.3692725 0.12782975
0.14293069 0.37004396 0.12834968
0.15088812 0.36030874 0.12947077
0.14526162 0.36006105 0.13271073
0.12997824 0.37085703 0.13574813
0.12539057 0.36886638 0.13890271
0.13157828 0.3601076 0.1340538
0.12329106 0.35893807 0.13801137
0.13635394 0.36953092 0.12919679
0.13564456 0.36417106 0.1308914
0.13869414 0.35345143 0.13421065
0.15001579 0.35296088 0.12709504
0.14302757 0.3504554 0.12984172
0.1318299 0.35182554 0.13321915
0.12120983 0.35084501 0.13584194
0.11912314 0.34395006 0.1342209
0.13289702 0.34671059 0.13068204
0.12640509 0.34648523 0.13040707
0.13165337 0.34322312 0.12756771
0.12504789 0.34228921 0.12808597
0.15562764 0.37021399 0.12171177
0.14260143 0.37380576 0.12116247
0.15560916 0.36021599 0.12369963
0.15155208 0.35173437 0.12458165
0.14649175 0.34754825 0.12399343
0.11551998 0.35187832 0.13848156
0.11506578 0.34287471 0.13827604
0.071606748 0.39836186 0.13785172
0.071767062 0.40957743 0.12638003
0.062536016 0.40714446 0.12392616
0.070073843 0.40144849 0.13005757
0.061168842 0.40049762 0.12702538
0.050602306 0.40711054 0.12120164
0.041864712 0.40691474 0.11955947
0.051626958 0.40013602 0.1236664
0.041553818 0.40012875 0.12282287
0.069163509 0.39138845 0.14067823
0.064613394 0.38731104 0.13558
0.069604233 0.38197738 0.14128488
0.065871105 0.39371485 0.13386299
0.061026305 0.39058185 0.12827548
0.066539876 0.37886718 0.1335395
0.061286725 0.3803018 0.12730306
0.05145574 0.39027843 0.12549923
0.041326843 0.39018753 0.12516409
0.051453289 0.38002929 0.12576319
0.041630182 0.38008037 0.12423541
0.032817956 0.40669572 0.11797158
0.021122478 0.41264197 0.11825533
0.031923346 0.39982709 0.12068813
0.024181001 0.39890644 0.11725605
0.013500869 0.41368291 0.1166809
0.031498533 0.38988736 0.12280837
0.023755275 0.39014295 0.11856106
0.03241441 0.38047758 0.12152218
0.025621526 0.38290858 0.11874329
0.071926594 0.37234318 0.14067565
0.073466823 0.36342803 0.14024693
0.068898752 0.37024564 0.1329409
0.059501763 0.3710916 0.12657876
0.070682496 0.36047941 0.13419916
0.057486638 0.36395642 0.12634709
0.05230511 0.37019533 0.12570485
0.0453116 0.37397876 0.12287411
0.053364001 0.36266673 0.12569147
0.069014728 0.34963205 0.14220664
0.062108047 0.34804437 0.13978598
0.06874308 0.34463942 0.14394002
0.060762573 0.34431154 0.14095704
0.070041656 0.35395572 0.13631551
0.060603105 0.35068434 0.13317882
0.056809686 0.34380224 0.13550131
0.051381726 0.34818134 0.12790409
0.041276485 0.34811124 0.12784413
0.051052295 0.34290463 0.1303968
0.040800881 0.34294534 0.1310405
0.034029163 0.34748033 0.12580796
0.032423265 0.34247845 0.12751968
0.069602638 0.41343546 0.12256458
0.061873283 0.41161644 0.11999536
0.053263996 0.41124693 0.11833042
0.04286674 0.41165525 0.11651026
0.032668531 0.41122326 0.11453323
0.023421258 0.40822011 0.11220732
0.020295121 0.40008393 0.113239
0.017109863 0.4067376 0.10575809
0.015754528 0.39856407 0.10761113
0.013774581 0.40665951 0.098621875
0.011322431 0.40358466 0.093149789
0.011972025 0.39825571 0.10096265
0.010092199 0.39712998 0.095755339
0.019627482 0.38847163 0.11473437
0.029912546 0.37610903 0.11816795
0.022871882 0.37870178 0.11388619
0.020331852 0.37406853 0.1059658
0.015737288 0.388998 0.10926865
0.017141551 0.38117024 0.10846552
0.012450151 0.38783678 0.10123178
0.010315187 0.38990799 0.096130759
0.016337588 0.37830746 0.10177706
0.012655199 0.40806347 0.090729356
0.011652865 0.40500724 0.089426801
0.0099231228 0.39861116 0.09006834
0.012550607 0.38340607 0.093117774
0.0097656846 0.38948962 0.092308581
0.016102098 0.37645152 0.093681544
0.018547036 0.37399825 0.083473988
0.067204371 0.36740515 0.12683368
0.063759521 0.36929792 0.12557048
0.067550823 0.35979331 0.1272057
0.062346786 0.35973153 0.12500486
0.048327528 0.36751947 0.1228947
0.042690448 0.3695145 0.11907933
0.051406827 0.35859686 0.1242483
0.045608599 0.35939011 0.11821543
0.040604245 0.36431023 0.11176497
0.042921677 0.36022842 0.10936817
0.059800424 0.35328975 0.12598886
0.052125033 0.35270709 0.12524451
0.043520484 0.3521997 0.12119474
0.043054208 0.35304517 0.11307188
0.0452528 0.35487953 0.095961824
0.044346258 0.35408041 0.091833681
0.04469496 0.34954515 0.095563389
0.043843549 0.35063529 0.093063325
0.033652164 0.37063256 0.11577397
0.026050024 0.37196034 0.1114734
0.033935562 0.36488259 0.10770091
0.02622012 0.36805651 0.10414799
0.036676507 0.36175963 0.1042099
0.031150289 0.36241472 0.10044565
0.020035416 0.37202227 0.098222189
0.032408003 0.34785557 0.12026311
0.029054821 0.3422192 0.12031688
0.028188005 0.33967221 0.11573307
0.025849864 0.36563286 0.097626679
0.036850017 0.35997751 0.10041282
0.030832537 0.36224341 0.099489368
0.043690201 0.3535684 0.087141447
0.019672312 0.37106782 0.094866231
0.037257139 0.34481177 0.094185762
0.032694943 0.34226754 0.092813388
0.032995299 0.34080988 0.095830806
0.031286962 0.33866298 0.094470531
0.039025277 0.34727561 0.090706281
0.031857431 0.34331638 0.090230748
0.029429704 0.33962366 0.090552926
0.088953398 0.48088154 0.059452087
0.090137459 0.47198823 0.061456084
0.087440714 0.4609077 0.072016947
0.087340564 0.45900506 0.072488844
0.091305442 0.46476954 0.066095382
0.089471117 0.45907131 0.070402935
0.09232334 0.48078075 0.05603271
0.094519064 0.4738746 0.057553507
0.096595258 0.46701637 0.060584527
0.078212336 0.48071754 0.067681983
0.07651943 0.4805229 0.067554094
0.077896416 0.47754425 0.068608232
0.071752794 0.47426647 0.071650013
0.084321819 0.48203781 0.063322537
0.083284892 0.47404951 0.064291596
0.076729305 0.47030398 0.067871198
0.063184813 0.47184101 0.073004693
0.080396973 0.46234906 0.071793221
0.071294457 0.46494386 0.072671033
0.079860494 0.45782357 0.076243222
0.071736746 0.45651647 0.07734438
0.082995959 0.4663406 0.067232646
0.076858498 0.469165 0.067944035
0.060560498 0.46681836 0.074624695
0.054034974 0.46613806 0.074001424
0.064777501 0.46031776 0.076802939
0.037795 0.45546842 0.063192256
0.032535322 0.45620596 0.06470149
0.040060081 0.45961031 0.05378408
0.034133323 0.46068317 0.054576509
0.039137207 0.45765814 0.058121435
0.031698875 0.45770475 0.058409251
0.029528566 0.45848081 0.050308555
0.02849859 0.45537925 0.054805785
0.03647466 0.4674904 0.031642985
0.032926239 0.46667087 0.029754372
0.041541286 0.46187919 0.046448205
0.035438068 0.46379229 0.045344785
0.042623855 0.46351871 0.040463727
0.035551302 0.46572429 0.037676889
0.030090302 0.46011278 0.043398142
0.029045269 0.45662761 0.048286833
0.031363182 0.46391174 0.034437116
0.067382835 0.45018062 0.077672116
0.045759887 0.46734512 0.023769051
0.039613642 0.47004062 0.024395131
0.044206478 0.4750002 0.014943331
0.04828801 0.47113532 0.016530715
0.042931393 0.47312418 0.017986732
0.033586971 0.46909729 0.02429327
